ply
format ascii 1.0
comment PCL generated
element vertex 588
property float x
property float y
property float z
property uchar red
property uchar green
property uchar blue
property float nx
property float ny
property float nz
property float curvature
element camera 0
property float view_px
property float view_py
property float view_pz
property float x_axisx
property float x_axisy
property float x_axisz
property float y_axisx
property float y_axisy
property float y_axisz
property float z_axisx
property float z_axisy
property float z_axisz
property float focal
property float scalex
property float scaley
property float centerx
property float centery
property int viewportx
property int viewporty
property float k1
property float k2
end_header
0.028439727 0.0752884 0.028395981 88 112 63 0.71823102 -0.0298591 0.69516301 0
0.028271724 0.078101397 0.026960999 77 100 45 0.49951401 0.18712801 0.84585398 0
0.023578729 0.087221399 0.024405986 100 123 70 0.20478299 0.281775 0.93737203 0
0.023159329 0.0898064 0.023398995 101 121 83 0.540995 -0.098042399 0.83529198 0
0.023257028 0.091484398 0.026252985 136 149 116 0.46169201 0.50686097 0.72796398 0
0.022152629 0.095051996 0.026095986 172 171 159 -0.064198203 0.59238797 0.80309099 0
0.076015726 0.014995407 0.098538995 99 120 75 0.57033002 0.100472 0.81524801 0
0.075178728 0.016478401 0.098773986 102 124 78 0.27831 -0.00025367699 0.960491 0
0.076231733 0.021156397 0.10176 98 118 58 0.253355 0.32400101 0.911502 0
0.07451573 0.022175398 0.100629 81 104 39 0.31350601 -0.16101401 0.935835 0
0.075380728 0.023281407 0.101284 85 105 42 0.393033 -0.28243899 0.87507302 0
0.040095728 0.0592844 0.03905499 93 113 64 -0.0060755601 0.387508 0.92184597 0
0.038793724 0.064058401 0.036753982 95 121 78 -0.17381001 0.44237101 0.87982899 0
0.030420724 0.0767904 0.027846992 99 124 73 -0.152769 0.80818099 0.56877601 0
0.028760929 0.078138396 0.025981992 82 106 48 -0.14166901 0.59426498 0.79169297 0
0.029725727 0.077655397 0.027661979 88 112 57 -0.025215 0.810794 0.58478802 0
0.030079726 0.077578396 0.026580989 109 133 86 -0.048675802 0.76521403 0.64193398 0
0.023238327 0.095161796 0.023618996 170 175 157 -0.25863999 -0.199543 0.94513899 0
0.022993024 0.094133899 0.025937974 165 169 150 -0.347624 0.63141 0.69316602 0
0.017622229 0.099017896 0.014373988 180 177 166 0.475052 0.42231801 0.77199298 0
0.076539725 0.022108402 0.10282299 85 109 44 0.12547199 -0.178434 0.97591901 0
0.042591725 0.059211399 0.038762987 136 143 111 -0.17684001 0.49377701 0.85141802 0
0.041579727 0.059922408 0.038553983 90 106 59 -0.16508301 0.57173198 0.80366099 0
0.041594725 0.061587404 0.037299991 89 108 61 -0.114184 0.506634 0.85456598 0
0.038609724 0.066268392 0.036276996 99 126 83 -0.025309101 0.555502 0.83113003 0
0.038528729 0.065505393 0.036624998 105 130 92 0.0488852 0.51787603 0.85405803 0
0.038544726 0.067473397 0.035439998 104 129 90 0.0067052501 0.737266 0.67557001 0
0.032630723 0.078112401 0.027526975 114 138 96 -0.0179583 0.41440701 0.90991402 0
0.030621726 0.079097398 0.025586993 116 139 93 0.0125293 0.64866197 0.76097298 0
0.031333726 0.078605399 0.027042001 113 136 92 0.065027602 0.67820603 0.73198903 0
0.029018726 0.080410399 0.02403298 87 109 58 0.72078502 0.24606 0.64801502 0
0.025815222 0.093244798 0.026234001 100 123 73 0.337051 0.45413399 0.82471699 0
0.024310622 0.0967886 0.021807998 154 164 139 0.0250444 0.50608802 0.86211801 0
0.024259325 0.0954559 0.022527993 142 156 126 -0.0923822 0.58130902 0.80842102 0
0.022986528 0.097431898 0.021435976 175 175 158 0.033731401 0.49808401 0.86647201 0
0.097384736 -0.0417496 0.092349976 109 127 77 0.627626 0.509045 0.58903199 0
0.043027725 0.0615444 0.036951989 134 141 107 0.142656 0.45076901 0.88116801 0
0.043090727 0.060586404 0.038262993 128 134 101 0.016622299 0.59464502 0.80381697 0
0.039747726 0.066702403 0.034192979 92 118 69 0.0074501601 0.76941502 0.63870502 0
0.040315729 0.066487394 0.036834985 97 122 77 0.0076891598 0.44144601 0.897255 0
0.037234727 0.0732904 0.031022996 102 127 86 -0.026885699 0.77285397 0.63401401 0
0.031894725 0.079664402 0.025150001 115 139 95 0.0254444 0.65250897 0.75735402 0
0.032550726 0.079072401 0.026516974 121 144 102 0.059211198 0.67524397 0.73521399 0
0.032722723 0.0786824 0.025201976 106 131 93 0.14633 0.72750503 0.67031598 0
0.031941723 0.080768399 0.024268985 115 139 92 0.0185117 0.641864 0.76659501 0
0.030578729 0.082679398 0.022819996 86 107 61 0.50972402 -0.34152699 0.78964603 0
0.028207924 0.0945554 0.026039988 108 131 77 -0.0102888 0.288966 0.95728397 0
0.025686827 0.0975518 0.021530002 139 153 123 -0.105464 0.50302601 0.85781199 0
0.024333324 0.098184198 0.021016002 166 171 147 -0.065534197 0.51240402 0.85623997 0
0.045005728 0.06077541 0.034940988 161 157 134 0.44292599 0.090911597 0.89193702 0
0.043807726 0.060886409 0.035842985 148 149 121 0.148166 0.50809598 0.84846002 0
0.044342723 0.060878407 0.037206978 181 180 161 -0.096803702 0.54470301 0.83302301 0
0.043552723 0.064162396 0.035043985 96 107 64 0.44218501 0.58962798 0.675879 0
0.043003727 0.062775396 0.036155999 102 112 70 0.218695 0.399481 0.89027399 0
0.040774729 0.069984399 0.034206003 94 119 71 0.085680902 0.82633698 0.55662 0
0.040091727 0.071698397 0.031440973 89 114 61 -0.0509261 0.72203201 0.68998301 0
0.033435728 0.080443397 0.024915993 112 137 101 0.030672399 0.68332899 0.72946602 0
0.032722723 0.081723399 0.023056984 115 138 96 0.18774401 0.246976 0.95065999 0
0.032599729 0.084089398 0.022092998 108 129 81 0.52846199 0.128328 0.83920199 0
0.031875726 0.085991398 0.023149997 76 98 37 0.363296 0.121879 0.92366803 0
0.027354624 0.097305901 0.020297974 110 134 85 -0.39442599 0.55589497 0.73171699 0
0.026064727 0.096588098 0.020660996 127 145 108 -0.044305801 0.44036701 0.89672399 0
0.027696129 0.098035201 0.022286981 119 140 94 -0.19213 0.702537 0.68522102 0
0.025507126 0.1004191 0.021102995 169 173 152 -0.0021210599 0.52042902 0.85390198 0
0.10398874 -0.048937593 0.095002979 133 141 99 -0.087595902 0.86138898 0.50033599 0
0.10320672 -0.048433591 0.094582975 126 137 92 -0.218058 0.89182103 0.39636499 0
0.10143574 -0.042076591 0.093457997 90 112 48 -0.56273901 0.40571499 0.720222 0
0.084474728 0.012026396 0.098952979 90 110 62 0.43909499 0.62440997 0.64599401 0
0.045657728 0.062405404 0.033799976 170 162 144 0.72301799 -0.031827699 0.69009602 0
0.04602873 0.061914396 0.034296989 178 174 156 0.51166701 0.15727501 0.844666 0
0.045107726 0.063188396 0.034209996 159 155 131 0.89047301 0.225605 0.395172 0
0.044695724 0.0635074 0.035222977 142 145 114 0.636105 0.352099 0.686584 0
0.044836726 0.0648304 0.034346998 111 119 78 0.60899198 0.57789898 0.54328698 0
0.043540727 0.065125398 0.033996999 86 100 51 0.47514701 0.69847298 0.535137 0
0.044137727 0.066064395 0.032890975 80 96 43 0.65579498 0.56262898 0.50336999 0
0.042113725 0.071167402 0.032468975 88 111 53 -0.137612 0.789635 0.597947 0
0.040668722 0.0732904 0.030887991 90 114 64 -0.0735026 0.65284902 0.753914 0
0.041047726 0.073518403 0.031120002 91 114 65 -0.055588 0.66003501 0.74917501 0
0.033600729 0.083218396 0.022599995 116 140 96 0.0092126103 0.27731001 0.96073598 0
0.033549722 0.085122399 0.021485001 112 133 91 0.54532403 0.029590899 0.83770299 0
0.033628728 0.087646402 0.023563981 77 99 39 0.48736301 -0.035723802 0.87246799 0
0.028200123 0.098374598 0.021588981 123 143 99 0.083636403 0.673159 0.73475301 0
0.029068727 0.098746002 0.020475 110 133 79 -0.16322701 0.76170403 0.62702799 0
0.10730773 -0.048195604 0.099345982 186 176 162 -0.18707199 0.84609002 0.49913499 0
0.10557772 -0.047508601 0.097755998 181 175 155 -0.19338 0.89861298 0.39382601 0
0.10367173 -0.044485603 0.094871998 93 115 53 -0.062676698 0.20507701 0.97673702 0
0.10355373 -0.044043604 0.093209982 92 112 50 -0.22675601 0.382972 0.89549702 0
0.086253732 0.014739405 0.10026398 86 109 51 -0.010048 0.15117399 0.98845601 0
0.04704373 0.061394405 0.03342098 132 135 106 0.441603 -0.035262398 0.89651698 0
0.046461727 0.063499399 0.033270985 154 147 124 0.92131603 -0.116653 0.370904 0
0.045779724 0.064764403 0.033488989 156 154 127 0.84322399 0.245574 0.478192 0
0.045178723 0.0656204 0.033253998 107 115 73 0.74484402 0.44437301 0.49773401 0
0.042981725 0.0698094 0.03114599 81 102 45 0.038671698 0.725088 0.68756902 0
0.041940723 0.072810397 0.031468987 86 110 52 -0.102307 0.65249699 0.75085402 0
0.041601729 0.075191401 0.030642986 93 117 60 -0.094837099 0.63782901 0.76431698 0
0.040461723 0.0771804 0.02679798 100 124 69 0.17550801 0.054445799 0.98297101 0
0.029418726 0.098831803 0.021054 110 132 78 -0.188694 0.76648802 0.61391401 0
0.10730773 -0.047249604 0.097749978 179 171 152 -0.18407699 0.84536898 0.50146502 0
0.10696873 -0.04618359 0.095388979 116 127 79 -0.202096 0.89669698 0.39381599 0
0.10557073 -0.045348603 0.092266977 89 110 44 -0.223759 0.88449901 0.409383 0
0.10519573 -0.044204596 0.092171997 91 112 46 -0.26970801 0.75360298 0.59944999 0
0.088800728 0.0054673962 0.09662798 96 115 67 0.35387599 0.60732597 0.711285 0
0.087319732 0.014796402 0.099468976 99 117 70 0.54224598 0.48776099 0.68414801 0
0.083148733 0.0265924 0.099577993 101 118 58 0.178266 0.52526599 0.83205599 0
0.046954725 0.065237395 0.031336993 157 154 128 0.94072503 0.084849998 0.32838401 0
0.047187727 0.066433392 0.030855983 122 122 87 0.92579001 0.12852301 0.35552099 0
0.046847727 0.067508399 0.030413002 91 101 52 0.81659001 0.29434401 0.49653 0
0.046365727 0.065644406 0.032064974 143 143 111 0.92965603 0.142838 0.339614 0
0.044135723 0.071790397 0.031025976 83 102 48 0.18372899 0.819857 0.54228997 0
0.042849723 0.077473402 0.029128999 94 117 54 -0.0573234 0.654998 0.75345302 0
0.042902727 0.077563398 0.02936399 94 116 54 -0.070115 0.64569902 0.76036602 0
0.032462727 0.098875098 0.021294981 112 134 74 -0.211731 0.470301 0.856731 0
0.031686727 0.099525698 0.021581978 109 133 75 -0.178646 0.477667 0.86018598 0
0.031881724 0.1002018 0.020485997 120 143 88 -0.22386301 0.45943201 0.85953897 0
0.032039728 0.1003199 0.020630985 120 143 87 -0.25125301 0.472161 0.84494799 0
0.030790728 0.1005977 0.02057299 115 136 88 -0.173839 0.493837 0.85200101 0
0.029056724 0.1027154 0.016793996 135 149 112 -0.256538 0.65575403 0.71005303 0
0.10830173 -0.046471599 0.095417976 133 138 99 -0.19915 0.897892 0.39259201 0
0.10678072 -0.045763601 0.092972994 92 110 49 -0.080322802 0.91391802 0.39787301 0
0.049153727 0.065759398 0.030970991 159 154 130 0.716883 0.62411797 0.31073499 0
0.048200723 0.066539399 0.030420989 130 131 96 0.68813801 0.542463 0.48187101 0
0.048247728 0.067477398 0.029437989 122 125 88 0.0328511 0.866741 0.497675 0
0.047061723 0.068072401 0.028966993 90 102 51 0.0093635898 0.84665698 0.53205597 0
0.043934729 0.076224402 0.02976799 87 109 43 -0.24667101 0.58409703 0.77329499 0
0.042678725 0.078690402 0.025482982 87 110 50 -0.50544602 0.40178001 0.76360798 0
0.042573724 0.079003401 0.027359992 105 127 81 0.61020499 0.44727701 0.653907 0
0.038660724 0.090055399 0.022816002 129 149 105 0.248926 -0.043151099 0.96756101 0
0.037260722 0.093120396 0.023143977 92 114 56 0.230803 0.240944 0.94269598 0
0.035930727 0.096538499 0.022780985 97 120 55 -0.190009 0.26434901 0.94552398 0
0.035581727 0.098437801 0.02245 111 133 69 -0.28448001 0.51719302 0.80720598 0
0.034462724 0.099734597 0.021530986 112 132 74 -0.27663699 0.486797 0.82855302 0
0.033682723 0.1021277 0.020681977 124 146 93 -0.26278999 0.47163099 0.84172797 0
0.032493729 0.1029644 0.019315988 124 147 99 -0.145732 0.62842101 0.76410002 0
0.031844724 0.1045908 0.019177973 122 143 101 -0.43685099 0.55920398 0.704593 0
0.030274723 0.1061934 0.017137975 168 173 152 -0.473912 0.495334 0.728046 0
0.030065726 0.1077557 0.016135991 179 177 162 -0.23857901 0.65381199 0.71806002 0
0.11128473 -0.045517597 0.097463995 148 142 111 -0.0355452 0.91760302 0.395906 0
0.10161373 -0.027726594 0.089715987 105 123 77 0.57029802 0.213173 0.79329503 0
0.049483728 0.064608403 0.027096987 160 152 130 0.602314 0.61284202 0.51151001 0
0.047410723 0.070174396 0.027182996 90 99 50 0.85955799 -0.146301 0.48964801 0
0.046717729 0.074254401 0.027652979 78 97 31 0.70856303 0.21011201 0.67364103 0
0.046348725 0.0761654 0.026421994 79 98 30 0.63845199 -0.0485227 0.76813102 0
0.045402724 0.075994402 0.026184976 76 98 31 0.45155901 -0.107433 0.88575 0
0.044840727 0.079150401 0.028007001 94 115 51 -0.0284223 0.41541901 0.90918601 0
0.044804726 0.078458399 0.026436985 85 107 42 -0.162717 0.44514099 0.88055301 0
0.045046728 0.080573402 0.028261989 96 118 52 -0.15016399 0.66532201 0.73129898 0
0.039672729 0.091706403 0.022574991 121 142 96 0.121765 0.16661499 0.97847497 0
0.038587723 0.092873596 0.022504985 127 148 99 0.31042299 0.075617097 0.947586 0
0.038159724 0.0919744 0.022881001 121 142 93 0.30203301 0.122048 0.94545197 0
0.038134728 0.094645701 0.022710979 101 123 66 0.329474 0.074682601 0.94120598 0
0.038025726 0.095365398 0.021705002 109 129 83 0.69619501 -0.25425801 0.67131603 0
0.10508373 -0.0318476 0.086771995 100 119 72 0.59118998 0.51351202 0.62193298 0
0.046463724 0.081494398 0.028333992 96 118 54 0.217106 0.67753798 0.70271403 0
0.045645725 0.0817734 0.026761979 106 128 68 -0.047427699 0.52876401 0.84744298 0
0.040101726 0.0928552 0.021982998 116 138 90 0.26171601 -0.00546807 0.96512902 0
0.092054725 0.013620403 0.094397992 93 115 65 0.381742 0.55348003 0.74022502 0
0.048727725 0.0809744 0.026495993 91 109 53 0.58930397 -0.35504401 0.72571599 0
0.052380729 0.075549401 0.026540995 167 162 142 0.059875701 -0.0302248 0.99774802 0
0.036544729 0.1113041 0.015091002 132 150 115 -0.473405 -0.208326 0.85585499 0
0.11704773 -0.043774594 0.096039981 148 146 112 -0.00176452 0.49597299 0.86833602 0
0.053203728 0.073949397 0.026138991 165 162 143 0.053892799 -0.079784699 0.995354 0
0.052864727 0.077117398 0.02512899 171 166 153 -0.066130899 -0.408896 0.910182 0
0.051383723 0.079655401 0.026454002 143 144 114 0.215013 -0.077560604 0.973526 0
0.052316729 0.081193402 0.026501983 164 160 139 0.68511403 0.234998 0.68948901 0
0.047078725 0.091434397 0.021619976 119 139 82 0.00177145 0.25110501 0.96795797 0
0.036567729 0.1137947 0.014646977 156 167 142 -0.47172299 0.53052002 0.70429099 0
0.050176729 0.0864814 0.023185998 90 107 47 0.334324 -0.0446533 0.94139999 0
0.047937725 0.092690401 0.021405995 127 145 98 0.27183601 0.0791201 0.959086 0
0.053107727 0.084994398 0.021453977 165 161 140 0.81225801 0.110822 0.57267398 0
0.052114729 0.085229397 0.021666974 147 148 118 0.81278801 0.160285 0.560076 0
0.050515722 0.091945402 0.021526992 100 117 46 0.55373698 0.21736901 0.80382001 0
0.038295727 0.1199356 0.013176978 197 195 186 0.222303 -0.303085 0.92667198 0
0.11885473 -0.04895759 0.083641976 135 138 100 0.92190897 0.19024 0.33748001 0
0.039212722 0.1217731 0.013982981 193 190 184 0.393289 -0.47068301 0.78979802 0
0.10181174 0.018094402 0.096293986 103 125 65 -0.414289 0.43368101 0.800179 0
0.054820728 0.086856402 0.017652988 179 178 168 0.26247001 0.49699101 0.82710898 0
0.047514725 0.1046563 0.016344994 112 135 70 -0.25547099 0.36219499 0.89640898 0
0.11922573 -0.0448916 0.077172995 80 99 35 0.34161299 0.142612 0.928958 0
0.10107674 0.023795407 0.096189976 114 136 78 -0.25229999 0.41191301 0.87559801 0
0.043220725 0.1212339 0.010619998 113 116 65 0.49013299 -0.00462511 0.87163597 0
0.041808728 0.1229046 0.011936992 146 142 121 0.468418 0.572061 0.673298 0
0.050084729 0.1111237 0.014426976 96 114 39 0.84534502 0.28670499 0.45076901 0
0.049272727 0.111484 0.015383989 102 120 58 0.236038 0.51731598 0.82260001 0
0.047651727 0.1133727 0.015019 103 121 48 0.10574 0.74751699 0.65577197 0
0.048036728 0.1124172 0.014334977 102 119 48 0.062791899 0.76541001 0.64047301 0
0.048762728 0.1120814 0.016538978 109 128 63 0.434892 0.20434099 0.87699097 0
0.047751728 0.1141859 0.014023989 101 117 46 0.56218201 0.39563599 0.72623903 0
0.12068173 -0.032603595 0.079961985 83 103 44 0.82743299 0.138592 0.54419398 0
0.055209722 0.1070685 0.017086983 170 167 139 0.60210502 0.70707899 0.37082201 0
0.054701727 0.1078396 0.015105993 177 173 153 0.60042799 0.71175098 0.36455101 0
0.05419473 0.1080626 0.016817987 168 168 147 -0.540057 0.157425 0.82677501 0
0.053727727 0.1079619 0.015506983 161 161 133 0.50285 0.76490802 0.40256399 0
0.054190721 0.1086015 0.013135999 175 173 153 0.65796101 0.62449801 0.42081901 0
0.053493727 0.1087013 0.014417976 154 153 123 0.56023002 0.69212401 0.455089 0
0.053674724 0.1079686 0.015300989 163 163 135 0.54139799 0.75005603 0.37987399 0
0.051163729 0.1120301 0.012579978 92 105 40 0.61489999 0.68589503 0.38916001 0
0.05835272 0.1023289 0.017984986 184 181 169 0.73830497 -0.0369053 0.67345601 0
0.055741724 0.1069841 0.015234977 178 173 154 0.60007602 0.71428698 0.36014199 0
0.05593672 0.1078629 0.015698999 179 174 156 0.58377701 0.68038702 0.44303301 0
0.05707873 0.1070434 0.015542984 179 173 154 0.306068 0.83803999 0.45167601 0
0.057304721 0.1076964 0.01504299 179 174 157 0.323304 0.83383501 0.447429 0
0.053063724 0.1205289 0.0094179809 185 183 174 -0.0075699999 -0.092582896 0.99567598 0
0.11301973 0.013728406 0.090272993 87 105 55 0.43177 0.082551599 0.89819801 0
0.11330573 0.014745396 0.089575976 84 105 48 0.389705 0.27874801 0.87774098 0
0.11210473 0.019203406 0.089341998 83 106 43 0.180052 -0.372623 0.910348 0
0.11173274 0.024526399 0.093804985 97 113 65 0.17031699 0.47011399 0.86601597 0
0.052329723 0.1225168 0.0090709925 191 187 172 0.36038801 0.128866 0.92385799 0
0.053571727 0.1221104 0.0075809956 202 200 201 0.49323499 -0.45130599 0.74366802 0
0.052742723 0.1235191 0.0077109933 202 201 200 0.56988502 -0.438712 0.69481099 0
0.11298972 0.021430399 0.093309999 91 112 52 0.34451199 -0.146466 0.92728603 0
0.12221673 -0.0016485937 0.088898987 84 108 53 -0.079305001 0.563483 0.82231301 0
0.12209673 -0.0015735961 0.090397984 95 116 63 -0.093968302 0.47412601 0.87542802 0
0.12064573 -0.0010476001 0.088250995 85 109 58 -0.140174 0.54047197 0.82960302 0
0.12596773 -0.00083460292 0.08702898 90 108 62 0.73725301 0.14478 0.659922 0
0.13782872 -0.039339591 0.067864001 99 114 60 -0.31653899 0.59479702 0.738931 0
0.12413673 0.011544403 0.085263997 78 96 37 0.70795703 0.31774601 0.630741 0
0.12244272 0.017485406 0.083187997 70 93 26 0.175567 0.411605 0.894292 0
0.12105173 0.024710398 0.090477973 84 102 40 0.69032001 -0.191357 0.69774002 0
0.12707873 0.008657407 0.084925979 81 99 40 0.43263799 0.127572 0.89249599 0
0.12404573 0.01612341 0.083976984 79 99 33 0.301588 0.177756 0.93672198 0
0.12498873 0.016562399 0.084575981 79 99 33 0.124356 0.214111 0.96886098 0
0.12417173 0.017872404 0.084382981 74 95 29 0.418834 -0.189693 0.88802898 0
0.12288272 0.018662404 0.083004981 72 92 26 0.602808 0.27856299 0.74768001 0
0.13013972 0.0071894042 0.084586978 83 103 41 -0.121775 0.78178 0.61154801 0
0.12869672 0.0085333996 0.085294992 79 99 37 0.27443501 0.348735 0.89614099 0
0.12848572 0.0087934099 0.084556997 76 97 37 0.213045 0.31717899 0.92412603 0
0.12355474 0.021423396 0.080940992 62 83 20 0.54488403 0.21694501 0.80996102 0
0.12347274 0.022106405 0.081877977 63 85 22 0.66863298 -0.24573299 0.70181602 0
0.13035072 0.0080514066 0.085663974 89 106 48 0.363552 0.49200401 0.79105097 0
0.13134372 0.0078674071 0.084948987 85 103 43 -0.121983 0.8003 0.58705997 0
0.13224773 0.010016408 0.085589975 83 100 42 0.36181 0.420643 0.831958 0
0.13226673 0.010818403 0.084766001 85 100 43 0.061257999 0.75582802 0.65189803 0
0.12650773 0.025069397 0.081757993 66 86 23 0.78938401 0.178508 0.58737302 0
0.12557273 0.027028408 0.083955973 67 83 25 0.555453 0.70110798 0.44712299 0
0.13282973 0.010810401 0.083757997 72 91 29 0.42610499 0.426099 0.79804403 0
0.12715472 0.025693398 0.083560973 64 85 20 0.94283497 0.165013 0.28953901 0
0.14218374 -0.013403598 0.081331998 74 91 37 0.438685 0.18369 0.87966698 0
0.13038974 0.015995409 0.077494979 58 81 18 0.52104902 -0.31475201 0.79337198 0
0.13138273 0.017607402 0.07733798 55 77 17 0.81365597 0.0278761 0.58067799 0
0.12929273 0.024070408 0.080644995 62 83 20 0.93864101 0.179682 0.294393 0
0.13198873 0.016928401 0.076374978 52 73 14 0.823672 -0.00115204 0.56706601 0
0.13303474 0.017257404 0.072946995 90 102 54 0.42046699 0.56209302 0.71222198 0
0.14027973 0.009654399 0.081232995 83 100 41 0.46794301 0.49320799 0.73333198 0
0.14107174 0.0089833997 0.081240982 85 101 43 0.463606 0.467935 0.75239998 0
0.15626073 -0.025174592 0.068340987 73 93 28 0.578385 -0.34807399 0.73777699 0
0.14675373 0.013704401 0.076801002 85 102 42 0.246756 0.50639802 0.82624 0
0.14596973 0.014639404 0.076283991 86 104 42 0.108159 0.49617201 0.86146098 0
0.14851773 0.012031402 0.074137002 102 115 58 0.17351501 0.54530501 0.82008201 0
0.14833774 0.014432397 0.076153994 89 109 45 -0.171324 0.29352 0.940476 0
0.15390573 0.013205405 0.069904 89 109 46 0.0221569 0.61054897 0.791668 0
0.15183173 0.0147884 0.068676978 119 129 85 0.298875 0.046381101 0.95316398 0
0.15645273 0.012879398 0.067534983 102 116 65 0.115671 -0.024216199 0.99299198 0
0.16054273 0.0070634 0.070459992 98 111 52 -0.088316299 0.78119802 0.61800599 0
0.15712573 0.01413941 0.067120999 169 169 145 -0.093698397 0.60741502 0.78883898 0
0.15636674 0.015017401 0.066870987 167 169 149 -0.141636 0.84695297 0.51245499 0
0.16227274 0.0075204037 0.071579993 97 112 48 -0.30693799 0.74700099 0.58972698 0
0.16129974 0.0083074085 0.069785982 105 118 59 0.0675532 0.87522298 0.47897899 0
0.15863873 0.013722401 0.067793995 147 149 113 0.31182101 0.411614 0.856354 0
0.16349372 0.0074004047 0.072411001 97 112 47 -0.32980701 0.72803497 0.60099298 0
0.16481173 0.0074024014 0.073350996 87 105 38 -0.33414999 0.67604101 0.65674299 0
0.16629472 0.0086524002 0.071698993 94 110 46 0.026888 0.443005 0.89611602 0
0.17915273 -0.018665601 0.056487978 146 143 110 -0.172969 0.70060199 0.69226998 0
-0.051706873 -0.062440608 0.098443002 149 162 135 0.30449301 0.00186059 0.95251298 0
-0.049165875 -0.005613599 0.111507 122 145 112 0.45132899 -0.166976 0.87659597 0
-0.050605875 -0.0013396032 0.11167598 141 159 135 0.738648 0.0055457102 0.67406899 0
-0.023249574 -0.01761559 0.117542 179 174 151 0.99592698 0.049231101 -0.075540498 0
-0.039667174 -0.010955591 0.11318198 109 133 100 0.293338 0.66784602 0.684057 0
-0.041461274 -0.010203604 0.112708 114 138 105 0.380945 0.68206698 0.62423199 0
-0.023733974 -0.018734593 0.11566398 159 167 135 0.808043 0.58832198 -0.0307048 0
-0.044990875 -0.0055445917 0.11075899 91 119 65 0.249945 -0.210483 0.94510603 0
-0.046936773 0.0069874041 0.11119398 191 182 160 0.71480298 0.136447 0.68588501 0
-0.048264973 0.0058964007 0.11067 189 181 159 0.61823797 0.55200702 0.55952603 0
-0.043568373 -0.0011576004 0.10994598 110 133 87 0.43705499 0.133554 0.88946402 0
-0.045717072 -0.0021856017 0.10952899 107 129 89 0.277491 0.0463733 0.95960802 0
-0.043320674 -0.0017395951 0.10843498 100 126 67 0.161688 0.057732299 0.98515201 0
-0.043811973 -8.1602535e-05 0.10871997 107 129 81 0.51746398 0.40989199 0.75114602 0
-0.044706874 0.0015504025 0.10889098 105 127 79 0.37677801 0.513107 0.77120602 0
-0.044420473 0.0045864098 0.10992798 110 129 78 0.51973301 0.51232499 0.683667 0
-0.045683272 0.0062843971 0.108964 171 174 143 0.59851998 0.022781 0.80078399 0
-0.023459274 -0.020356599 0.11124998 114 133 84 0.99426299 0.0795836 0.071469396 0
-0.021038175 -0.0147066 0.11368799 81 104 36 0.98823601 -0.152169 0.0153041 0
-0.040311873 -0.0015025921 0.10767999 99 122 64 0.373009 -0.16281401 0.91343099 0
-0.041314773 0.00040940562 0.10834998 108 131 75 0.373739 -0.15105 0.91515201 0
-0.042308874 0.0017103963 0.108363 96 117 66 0.74685001 0.29954401 0.59370798 0
-0.042290974 0.0023694001 0.10838598 96 118 63 0.242378 0.25169101 0.936966 0
-0.042382773 0.0043304078 0.10847998 109 130 75 0.30818301 -0.0037400001 0.95131999 0
-0.024102975 -0.022393603 0.10858598 113 137 80 0.98116899 0.190686 -0.030780001 0
-0.021142576 -0.015626598 0.11218899 82 107 33 0.99434203 0.074857801 0.075364001 0
-0.020067874 -0.01489659 0.11276799 81 105 33 0.98793101 0.035738599 -0.150713 0
-0.038159575 -0.0014876015 0.10683399 96 119 57 0.37310299 -0.166784 0.91267598 0
-0.038868573 0.00055339554 0.107669 91 113 53 0.31242001 0.50396901 0.80523902 0
-0.040723175 0.0022613965 0.10783899 97 120 58 0.423118 0.273619 0.86377299 0
-0.041169874 0.0040803961 0.10783598 99 121 62 0.29167801 0.0238405 0.95621902 0
-0.041898374 0.0089884065 0.10837099 154 162 119 0.45983899 -0.38356501 0.80089098 0
-0.024342373 -0.021667603 0.10703999 92 118 50 0.99265301 0.036356699 0.115409 0
-0.021008775 -0.016499598 0.110719 79 104 27 0.99190801 0.0300844 0.123339 0
-0.035953674 -0.0014475919 0.10599798 92 116 50 0.40798399 -0.18571401 0.89390099 0
-0.036518674 -0.00042459747 0.10655999 98 122 57 0.38039199 0.0279132 0.92440403 0
-0.038612373 0.0025443994 0.10688499 88 111 46 0.44784501 0.108249 0.88753402 0
-0.039922472 0.0037534051 0.106859 97 119 56 0.54636103 -0.341995 0.76454502 0
-0.039002474 0.0036494099 0.106006 87 112 43 0.36796999 0.0039616502 0.929829 0
-0.038287275 0.0078654103 0.10776898 91 111 46 0.47447899 -0.19733199 0.85786402 0
-0.019786675 -0.049391601 0.10284498 101 124 74 0.0054579098 0.198293 0.98012799 0
-0.036294375 0.00085740903 0.10599899 90 114 47 0.437163 0.199187 0.87704802 0
-0.036785573 0.0037604086 0.10532999 84 105 39 0.63892102 0.25759 0.72486401 0
-0.018113475 -0.0490156 0.102045 89 110 57 0.450609 0.268536 0.85137498 0
-0.016594175 -0.049040604 0.10148999 84 107 49 0.40656099 -0.074524 0.91057903 0
-0.030717272 -0.0066475905 0.10556698 64 88 18 0.15210199 0.66201502 0.73389399 0
-0.032630075 0.0016024075 0.10625899 81 103 39 0.66085398 -0.365724 0.65537602 0
-0.035511374 0.0024094097 0.105369 78 101 34 0.219457 0.41225299 0.88424301 0
-0.015162174 -0.050362591 0.10156 84 108 50 -0.098357201 0.493534 0.86414701 0
-0.016463473 -0.048961598 0.10127899 85 108 49 0.290943 0.36872599 0.88283199 0
-0.017405573 -0.043514598 0.101807 85 108 52 0.63036501 0.0351106 0.77550501 0
-0.016951874 -0.041699592 0.10130098 97 121 65 -0.037824702 0.94372201 0.32856899 0
-0.021058872 -0.016981591 0.10547799 74 103 14 0.89083099 0.328145 -0.31423 0
-0.023099475 -0.011068601 0.10254598 72 100 17 0.83603001 -0.243193 0.49184501 0
-0.022615176 -0.010958601 0.10264099 82 109 22 0.53327602 0.433512 0.72641802 0
-0.023735274 -0.0090836026 0.10283598 78 105 21 0.78005701 -0.2296 0.58206099 0
-0.031093873 0.0075134002 0.10355797 84 107 32 0.142368 0.632559 0.76131499 0
-0.030771773 0.0096474104 0.10369098 79 104 29 0.252839 0.247136 0.93541199 0
-0.022311673 -0.0095005967 0.101906 75 104 16 0.25451601 0.38387901 0.88761401 0
-0.025289074 -0.0022036023 0.10129198 74 101 24 0.76373702 -0.112443 0.63565898 0
-0.026979376 -0.003281597 0.100366 71 99 22 0.406766 -0.26667699 0.87374198 0
-0.015502274 -0.024180595 0.099931002 154 157 112 0.81674999 0.40671101 0.40927401 0
-0.017490473 -0.021567602 0.098900974 81 105 27 0.26858401 0.0717334 0.960581 0
-0.027739774 0.0090094022 0.100889 89 112 49 0.77943701 -0.043909501 0.62493998 0
0.0018303287 -0.044995595 0.100826 115 133 79 0.39327499 0.31579101 0.86348701 0
-0.016617574 -0.023123596 0.098749995 119 130 66 0.50690901 -0.25110599 0.824615 0
-0.025044773 0.0096944086 0.10058898 134 156 111 0.55843598 0.64582199 0.52063698 0
-0.021963473 -0.0071295984 0.097695976 86 110 44 0.36043799 0.38372999 0.85019702 0
-0.015731376 0.0063013993 0.103223 71 95 15 0.193855 0.84357703 0.50079697 0
-0.024855874 0.0094604008 0.099405974 130 153 112 0.0939833 0.66626501 0.73976898 0
-0.025009573 0.010805409 0.099665999 134 157 118 0.067148298 0.65526402 0.75240898 0
-0.013965975 0.0055344068 0.10228097 74 99 16 0.043350801 0.79455203 0.60564703 0
-0.014258675 0.0067993961 0.10252398 73 96 16 0.15942501 0.64785498 0.74489498 0
-0.020510975 0.0095363967 0.099520981 122 145 105 0.0692757 0.61326897 0.78683001 0
-0.022317473 0.010279398 0.099169999 108 132 86 0.38789701 0.56304598 0.72973698 0
0.029088724 -0.047914598 0.10806799 123 143 101 0.47145 0.31569099 0.82345301 0
0.027567927 -0.048279602 0.10850298 112 133 86 0.61611003 0.145154 0.77416998 0
-0.013417576 0.0076703988 0.10081398 84 108 27 0.50252199 0.55552298 0.66246998 0
-0.017104074 0.023748409 0.102503 96 116 71 0.77828199 0.156514 0.608096 0
-0.012206573 0.0075433962 0.09999299 77 101 17 0.406663 0.347177 0.84504002 0
-0.013271473 0.0095803998 0.09979099 123 146 85 0.56103098 -0.0526792 0.82611698 0
-0.015419275 0.010203402 0.099532992 113 132 91 0.56857502 0.76834202 0.29389399 0
-0.018665675 0.010873403 0.098773986 126 150 109 0.30588701 0.23900799 0.921579 0
-0.012116875 0.008605402 0.098948985 76 101 15 0.55170101 0.37763 0.74365401 0
-0.010853574 0.010159399 0.098555982 75 100 15 0.34179199 0.670111 0.658885 0
-0.011589974 0.011754405 0.099188 107 130 62 0.647672 0.0045451201 0.76190603 0
-0.013163272 0.011592399 0.098465979 108 130 75 0.236214 0.47301301 0.8488 0
-0.0026481706 -0.032981593 0.091178 191 186 167 0.58118898 0.23511 0.77906501 0
-0.0037754732 -0.028176595 0.090815991 103 112 49 0.45263001 0.25176799 0.85541701 0
-0.0020263749 -0.02764659 0.091205001 123 132 84 0.81560099 0.137428 0.56205797 0
-0.0020983773 -0.029262591 0.088512987 145 152 113 0.564825 0.16168 0.80921698 0
-0.0020015719 -0.028083596 0.089814991 132 143 94 0.445885 0.60652697 0.65826398 0
-0.019558772 0.066639401 0.10263899 131 155 127 0.45933101 0.65213102 0.603109 0
-0.010423575 0.042635407 0.10028598 77 100 44 0.40243 0.0508403 0.914038 0
-0.032457072 0.088671401 0.094834983 116 139 97 0.49074399 0.402468 0.77278101 0
0.049582724 -0.031914596 0.10543799 187 176 157 -0.057898302 0.79362202 0.60565001 0
0.0021743295 0.037641402 0.099034995 132 161 142 0.62668198 -0.39224499 0.67335999 0
-0.014480073 0.0700344 0.097359985 113 140 109 -0.0033122899 0.163799 0.98648798 0
-0.015160773 0.069844402 0.096996993 115 141 111 0.17230099 0.247473 0.95345098 0
-0.018017173 0.0710954 0.09682399 136 162 138 0.172929 0.285842 0.94254398 0
-0.033555973 0.090763398 0.092773974 117 136 92 0.248403 0.39953601 0.88242102 0
-0.035449173 0.092506401 0.092543989 163 166 133 0.446973 0.74751902 0.49135599 0
-0.036865473 0.092955701 0.092958987 178 172 141 0.27803701 0.92915899 0.24363799 0
-0.037240572 0.0935378 0.091558993 187 179 156 0.476964 0.76804101 0.427338 0
0.0025116247 0.044947397 0.099053979 137 165 149 0.45651999 -0.42892101 0.77949703 0
-0.0036992761 0.057655405 0.099179983 106 125 75 0.59248298 0.75327998 0.28554001 0
-0.017973375 0.074109398 0.095357984 124 149 124 -0.0070513501 0.239519 0.97086602 0
0.051718723 -0.028539602 0.10404998 119 127 91 0.932172 0.36183599 -0.0114461 0
0.012413729 0.045653399 0.10285097 126 154 130 0.29101399 0.121507 0.94897199 0
-0.024999972 0.084297396 0.092787981 109 135 99 0.214803 0.43828401 0.87279302 0
0.053934719 -0.030203599 0.10363698 100 117 76 0.95380902 0.298401 0.034724999 0
0.015270729 0.043917399 0.10148498 133 156 140 0.462874 -0.057785202 0.88453799 0
0.014648225 0.045719396 0.10221398 133 158 139 0.25289699 -0.0197371 0.96729201 0
0.013021227 0.047097396 0.10206798 143 169 155 0.234405 0.308552 0.92187297 0
0.013962228 0.048701402 0.10176799 142 167 153 0.24792901 -0.0053822501 0.96876299 0
-0.018439773 0.0819204 0.09393099 120 146 114 -0.021352399 0.35634199 0.93411201 0
0.062892735 -0.036792595 0.105373 110 123 75 -0.040950298 0.91960502 0.39070499 0
0.063140735 -0.035383601 0.10567999 105 123 68 -0.094963998 0.94621402 0.30929199 0
0.053158727 -0.024759594 0.10320598 89 108 62 0.75182301 0.188172 0.63194501 0
0.017650228 0.046134409 0.10246 140 165 148 0.217775 0.158189 0.963094 0
0.016279723 0.045649406 0.101623 145 168 146 0.115118 0.401196 0.90872997 0
0.015556525 0.047349405 0.10199898 143 169 151 0.231699 0.029934 0.97232699 0
0.016158629 0.047528397 0.101616 136 163 134 0.437938 0.100953 0.89331901 0
-0.020127673 0.084632397 0.093097001 140 165 144 0.183727 0.74333203 0.643197 0
-0.027069375 0.094463296 0.091163993 117 138 99 0.0096456101 0.623092 0.78208899 0
0.059248727 -0.034635592 0.101942 106 126 75 0.36914599 0.16409799 0.91476899 0
0.058670726 -0.034953598 0.10225999 103 124 71 0.54900098 0.048352599 0.83442199 0
0.059082728 -0.032321591 0.10215098 110 130 89 0.168634 0.16086499 0.97246301 0
0.05622473 -0.0292936 0.10216898 119 139 102 0.27224499 0.218086 0.93718803 0
0.054330733 -0.026958603 0.101953 118 138 107 0.64924097 0.294144 0.70140302 0
0.053648729 -0.025631595 0.10193098 101 120 86 0.792418 0.091119803 0.60313499 0
0.053984728 -0.023848597 0.10225299 90 111 70 0.689596 0.21714801 0.69087201 0
0.020090323 0.04760341 0.10172698 122 146 126 0.194739 0.122464 0.97318 0
-0.0062252763 0.077352397 0.096325994 93 112 67 0.38588601 0.68237102 0.62085599 0
0.069645733 -0.039826591 0.10453898 144 150 115 0.74567997 0.64564401 0.164636 0
0.057697725 -0.029331598 0.10169798 121 138 106 0.18114001 0.137909 0.97373998 0
0.05682173 -0.027975593 0.10130697 123 144 117 0.48857301 -0.30697301 0.81673998 0
0.055841725 -0.026833598 0.10130399 130 150 125 0.093084604 0.328758 0.939816 0
0.055419724 -0.024176601 0.10158199 114 136 95 0.206809 0.086570203 0.97454399 0
-0.0092291757 0.0806664 0.094292998 79 102 45 0.22069401 0.170509 0.96032298 0
-0.0096487738 0.082281396 0.094380975 104 125 72 0.35222 0.088108599 0.93176103 0
-0.015683275 0.0865824 0.092588991 98 124 92 0.44001901 -0.025563501 0.89762402 0
-0.014876675 0.087250397 0.091847003 103 131 92 0.147385 0.45824701 0.87651998 0
0.059876721 -0.026154596 0.10118499 106 128 86 0.107964 0.42505199 0.89870799 0
0.057959732 -0.026281599 0.101336 125 145 119 0.108014 0.27091599 0.95652401 0
0.056777727 -0.0250316 0.10064998 134 154 133 0.29993901 -0.067209698 0.95158798 0
0.053636726 0.021399405 0.110194 107 129 73 0.0061728102 0.456792 0.889552 0
0.052841727 0.022880401 0.10961598 126 143 97 0.61178201 0.28399599 0.73828799 0
-0.0078644715 0.082561396 0.092830986 95 116 65 0.198542 0.169569 0.965312 0
-0.013843276 0.088994399 0.091711998 118 145 112 0.031030601 0.21265 0.97663599 0
-0.015780974 0.088556401 0.091338992 123 149 123 0.19814301 0.406203 0.89204198 0
-0.014846075 0.090212397 0.091144979 127 152 126 0.44985101 -0.211928 0.86759502 0
0.069397733 -0.036390591 0.10244998 112 129 78 0.495648 0.749515 0.43881601 0
0.060375731 -0.024988595 0.10037997 94 116 71 0.097012803 0.35569999 0.92955101 0
0.05865873 -0.025018591 0.10056099 118 137 104 0.0475883 0.40716699 0.91211301 0
0.069507733 -0.035531599 0.10138798 99 119 68 0.35771301 0.871535 0.33536199 0
0.067358732 -0.035835598 0.100905 98 117 66 0.116303 0.70672899 0.69786 0
0.066752732 -0.034415592 0.100907 95 114 60 0.60317498 0.26073101 0.75379002 0
0.066003725 -0.03309359 0.10083199 90 112 56 0.620718 0.233354 0.74850202 0
0.06531173 -0.031710599 0.10080299 88 110 55 0.58611798 0.251019 0.77036101 0
0.06176972 -0.025091592 0.10012999 90 112 62 0.45030901 0.311874 0.83663398 0
0.061119732 -0.023617599 0.099731982 91 113 71 0.34785599 -0.0987342 0.93233502 0
-0.0073529738 0.090014398 0.09305799 106 128 81 0.453715 0.75181597 0.47845101 0
0.068381727 -0.035147596 0.099605978 96 117 63 0.59444398 0.0436593 0.80295098 0
0.065560728 -0.026366595 0.099881977 113 135 91 0.36897701 0.157831 0.91593999 0
0.064093724 -0.026376594 0.099546999 113 135 90 0.49792099 0.25924999 0.82756501 0
0.063219726 -0.0250686 0.099510998 115 136 93 0.53655601 0.41703299 0.73361498 0
0.061378729 -0.022671599 0.099235982 107 128 93 0.11732 0.50527602 0.85494602 0
0.060397726 -0.021518592 0.099136978 99 118 85 0.172217 0.477669 0.86149502 0
0.056451719 -0.016630594 0.097383976 100 121 93 0.47788301 0.50917798 0.71579701 0
0.056500729 -0.016236592 0.098751992 105 127 94 0.78560501 0.61265898 0.086451203 0
0.055421721 -0.015697602 0.097487003 85 108 63 0.096599802 -0.142156 0.98511899 0
0.053840723 -0.013259593 0.096724987 96 116 70 -0.173706 0.539612 0.82379901 0
-0.00174557 0.081878401 0.091755986 112 136 93 0.75287199 0.087899603 0.65227199 0
-0.0054569724 0.0851904 0.089908987 100 120 70 0.67836398 0.53040302 0.508425 0
-0.0047467756 0.089716397 0.092708975 100 121 71 0.49643499 0.499405 0.710033 0
-0.0058783772 0.090374403 0.092421979 121 140 107 0.266776 0.66781199 0.69488001 0
-0.0048455703 0.090554401 0.091609001 102 122 80 0.248813 0.44960499 0.85787398 0
-0.010348473 0.090995401 0.089235991 103 123 91 0.78030902 0.39480901 0.48502001 0
-0.012155674 0.094526999 0.089439988 122 142 117 0.87350202 0.48258501 -0.064083599 0
0.067299724 -0.028107602 0.099320978 104 127 81 0.286033 0.0215555 0.957977 0
0.066176727 -0.028022591 0.099489987 106 129 82 0.39557499 0.114011 0.91132998 0
0.065052733 -0.024678592 0.098933995 104 126 83 0.33583701 0.401566 0.85203201 0
0.064174727 -0.023469601 0.098728001 97 121 72 0.41446701 0.39830399 0.81827301 0
0.063301727 -0.022324596 0.098609 103 128 79 0.53487301 0.389864 0.74961102 0
0.062480729 -0.021050591 0.098636985 112 132 102 0.0282511 0.48533699 0.87387103 0
0.060752731 -0.0182986 0.097648978 95 114 80 0.219355 0.41959101 0.88081002 0
0.057942729 -0.01755159 0.097305983 82 106 57 0.091599502 0.29770699 0.95025301 0
0.055952724 -0.014779601 0.096282989 93 114 69 -0.060499799 0.49883699 0.864582 0
0.058044728 0.026170399 0.10743499 134 156 120 0.145404 0.91133499 0.38513201 0
0.057604726 0.026709404 0.10801598 135 156 118 0.215938 0.809412 0.54609698 0
0.055126723 0.026854407 0.10680199 151 161 135 0.071006298 0.81588298 0.57384098 0
0.024979923 0.068300396 0.10010299 132 155 124 0.918589 0.327573 0.221112 0
-0.0043773758 0.084230401 0.090067983 97 118 64 0.789473 0.509565 0.34216401 0
-0.004619177 0.086085401 0.089133978 93 116 57 0.69241798 0.143519 0.70707798 0
-0.0053963768 0.087322399 0.088967979 87 107 60 0.64663202 -0.46531001 0.60444498 0
-0.0090361759 0.090944402 0.088670999 84 104 59 0.327676 0.28043899 0.90221 0
-0.0097633749 0.092256099 0.088543981 82 103 58 0.40065399 0.33350801 0.85337502 0
-0.010686673 0.093482599 0.088452995 83 106 62 0.454734 0.396566 0.79746699 0
-0.010769475 0.094530098 0.088114977 80 103 60 0.54353702 0.47763601 0.69024003 0
-0.011882573 0.095702 0.088227987 82 107 63 0.68712401 0.468458 0.55534399 0
-0.013423674 0.096413098 0.088122994 99 123 85 0.37535399 0.33722299 0.86335999 0
-0.014471672 0.097555198 0.087993979 109 133 103 0.41892999 0.362492 0.83252501 0
0.068141729 -0.026533592 0.099014997 101 123 79 0.32813999 0.29660499 0.89685601 0
0.066444725 -0.024687592 0.098373979 109 129 89 0.62467402 -0.132291 0.76959801 0
0.069258735 -0.021833602 0.099937975 118 134 102 0.73591399 0.41421399 0.53559101 0
0.066048726 -0.019856591 0.099841982 113 129 96 0.26804599 0.369311 0.88981003 0
0.066989735 -0.020106602 0.099657983 109 126 95 0.36284399 0.366054 0.856942 0
0.062491726 -0.019026596 0.098223001 100 119 86 0.043866199 0.58879203 0.80709398 0
0.057383727 -0.014169592 0.096038997 137 156 114 0.11518 0.74963999 0.65174598 0
0.055307727 -0.013303597 0.095697999 117 136 88 0.16284899 0.93698102 0.30910799 0
0.00086462917 0.00079640368 0.07070598 77 87 46 0.990421 -0.13055199 -0.044971 0
-0.0032055709 0.0843454 0.088821977 112 135 91 0.81781298 -0.019029601 0.57516998 0
-0.003630172 0.087021396 0.088384002 100 123 70 0.64611 0.108181 0.755539 0
-0.0059522721 0.089739397 0.087964982 75 97 41 0.419009 0.41349101 0.80836701 0
-0.0069900709 0.090829402 0.087935001 74 96 44 0.37852299 0.39759699 0.83584499 0
-0.0083028711 0.092252702 0.088024974 75 97 48 0.30974001 0.343467 0.88661802 0
-0.0092651732 0.093494698 0.087823987 84 106 61 0.398644 0.356962 0.84478498 0
-0.0092730746 0.093502201 0.087816983 85 107 61 0.40738699 0.36590099 0.83675098 0
-0.0093107745 0.0944582 0.08712098 112 134 96 0.46282601 0.56479001 0.683231 0
-0.010606475 0.0956949 0.087239981 110 133 97 0.50008798 0.47065899 0.726906 0
-0.011552073 0.096789099 0.087219983 110 133 99 0.49795499 0.46460801 0.73224401 0
-0.012885872 0.097664297 0.087086976 110 133 99 0.52810699 0.375554 0.76161802 0
-0.013750773 0.098853402 0.087084979 98 123 85 0.523395 0.35400999 0.77507001 0
0.069318727 -0.024895597 0.098760992 109 130 87 0.380124 -0.187812 0.90566701 0
0.069397733 -0.020761598 0.099110991 92 107 70 0.51924098 0.75058198 0.40867499 0
0.068455726 -0.020006601 0.098966986 92 108 73 0.478641 0.737701 0.47613001 0
0.066306725 -0.019768599 0.097828984 96 116 80 0.15809 0.41566101 0.895675 0
0.064042732 -0.01835059 0.097570986 111 130 98 0.246884 0.77685899 0.579256 0
0.016592827 0.081271403 0.095956981 110 133 94 0.66679603 0.52139598 0.53247499 0
-0.0042055729 0.088192396 0.087998003 93 114 59 0.61267501 0.14063799 0.77772099 0
-0.005667876 0.090916403 0.087127984 87 110 60 0.511558 0.436535 0.740098 0
-0.0075197699 0.091796398 0.086822987 100 122 77 0.80849499 0.57581902 0.121523 0
-0.0083324723 0.093365997 0.087121993 105 127 86 0.57291198 0.51168102 0.64027703 0
-0.008506272 0.095807396 0.086444974 123 145 118 0.28881401 0.38243201 0.87768602 0
-0.011311673 0.097894602 0.086311996 133 155 130 0.496755 0.46374401 0.73360503 0
0.071682736 -0.021521602 0.098211974 87 104 59 0.524773 0.68096399 0.51078498 0
0.070413724 -0.020755593 0.098105997 98 115 74 0.33459899 0.73460901 0.59024799 0
0.069409728 -0.019811604 0.097944975 108 124 88 0.447604 0.710051 0.54357803 0
0.068383723 -0.019490603 0.097581983 113 129 96 0.49633399 0.80102998 0.33467001 0
0.065415725 -0.018124599 0.096762002 123 143 118 0.17386501 0.81904203 0.546754 0
0.027712923 0.069698401 0.098262995 129 151 120 0.18700001 0.368635 0.91057098 0
-0.0068514752 0.095106803 0.086646974 101 127 85 0.33114299 -0.33196199 0.883259 0
-0.0072700712 0.097621799 0.085839987 121 144 112 0.186462 0.434396 0.88121098 0
0.082620725 -0.045957599 0.097285002 177 163 141 0.65508598 0.200882 0.72836 0
0.074171737 -0.028795604 0.097166985 90 111 59 0.59555399 -0.080256999 0.79929602 0
0.072465733 -0.022575591 0.09798798 82 99 52 0.26571399 0.78463799 0.56012398 0
0.067547724 -0.019102592 0.096069992 114 132 106 0.917741 0.215689 0.33351099 0
0.067280725 -0.017623592 0.096201986 114 133 109 0.20134901 0.107757 0.97357398 0
0.067437723 -0.015362594 0.096952975 115 134 115 0.165793 0.1265 0.97801298 0
0.066460729 -0.01374859 0.096868992 124 144 126 0.15500499 0.146872 0.97693503 0
0.066095725 0.013258409 0.10266399 79 100 43 0.21174701 0.045060098 0.97628498 0
0.027608123 0.070800401 0.097561985 112 137 95 0.150731 0.89647001 0.41667899 0
0.026890922 0.072144397 0.097287983 115 141 105 0.208125 0.419267 0.88368499 0
-0.0056892741 0.0963208 0.086014003 121 144 114 0.25703701 0.329474 0.90850401 0
0.081603736 -0.041897599 0.096434981 109 124 74 0.549326 0.36913499 0.74965298 0
0.080648735 -0.031567592 0.097633988 101 119 67 0.87954801 0.46177199 0.114724 0
0.075127736 -0.024638597 0.097315997 76 95 40 0.36947799 -0.180059 0.91162699 0
0.074719727 -0.022277597 0.097811997 89 105 59 0.38948101 0.636976 0.66525698 0
0.072771728 -0.0213666 0.097270995 109 122 88 0.280395 0.350503 0.89360303 0
0.07249473 -0.021650601 0.096739978 109 123 88 0.34897 0.81922197 0.45507699 0
0.070912734 -0.021196593 0.096239001 111 127 92 0.239435 0.90346903 0.35554799 0
0.069010735 -0.017676596 0.095761985 106 125 97 0.212483 0.0396709 0.97635901 0
0.069288731 -0.015372593 0.09660998 117 136 112 0.166528 0.124446 0.97815198 0
0.06832473 -0.01374859 0.096567988 121 141 120 0.1577 0.141949 0.97723198 0
0.068266734 0.01057541 0.10240698 100 117 72 0.322752 0.068356298 0.94401199 0
0.066811725 0.012771409 0.10161898 96 112 64 0.73671699 0.218702 0.63985801 0
0.016513128 0.083755396 0.093378991 106 130 88 0.130171 0.347247 0.92869502 0
0.078213736 -0.0252616 0.097609997 83 100 47 0.668832 -0.093839303 0.73746699 0
0.077639729 -0.024016593 0.097297996 77 96 39 0.061972499 0.66236001 0.74661899 0
0.072468728 -0.02091359 0.095376998 106 123 88 -0.017129499 0.92806298 0.37202799 0
0.071621731 -0.017108593 0.095969975 100 119 85 0.180306 0.0987278 0.978643 0
0.070655733 -0.015657593 0.095955998 105 125 96 0.28718501 0.153933 0.94542599 0
0.070209727 -0.013735596 0.096266985 112 131 107 0.29830101 0.084627397 0.95071298 0
0.074857727 0.0063583963 0.103789 100 116 75 0.241267 -0.0070609199 0.970433 0
0.068005726 0.014646407 0.101778 85 106 46 0.26815599 0.045713302 0.96228999 0
0.069411725 0.025728401 0.10448498 104 125 61 -0.0229077 0.475391 0.87947702 0
0.00016512396 0.0054393969 0.062509 169 157 134 0.97534299 0.14448 -0.16682599 0
-0.0048404741 0.1036905 0.084345996 109 133 86 0.59579802 0.114796 0.79488802 0
-0.0052532735 0.1080341 0.085002989 107 131 93 0.49697301 0.239738 0.833992 0
0.07731773 -0.017500598 0.097093999 91 113 64 0.29713199 -0.0936528 0.95023203 0
0.074201733 -0.018922601 0.095296979 111 129 86 0.245627 0.57741702 0.77862501 0
0.077764735 0.0051064007 0.10310799 120 134 101 0.323156 0.038621601 0.945557 0
0.076246724 0.0058233999 0.10250598 105 121 78 0.31295699 0.45440099 0.83401299 0
0.045566726 0.064585395 0.10056198 125 135 88 0.61806899 0.188622 0.76315999 0
-0.0067534703 0.1105579 0.084593982 124 147 113 0.53640097 0.42059699 0.731691 0
-0.00655337 0.111559 0.083687991 131 154 117 0.434973 0.40994 0.80171502 0
0.08374773 -0.032631595 0.094805002 89 109 56 0.95816702 0.154397 0.24099299 0
0.083391726 -0.029672597 0.09543699 92 109 58 0.47221601 0.37869301 0.79599202 0
0.082428724 -0.027633596 0.096210003 88 104 53 0.30355 0.59062302 0.74767798 0
0.079008728 -0.017926592 0.09661299 101 121 78 0.60307902 0.28413799 0.74536002 0
0.078792736 0.0063964091 0.10266 100 115 74 0.543127 0.251634 0.80105799 0
0.077977732 0.0075994097 0.10256398 97 114 70 0.594024 0.247206 0.76552302 0
0.072193727 0.011337396 0.099904001 105 125 82 0.324595 -0.16068301 0.932105 0
0.073057726 0.019313406 0.10246599 83 103 42 0.58110201 -0.35861701 0.73055702 0
0.00048092427 0.0049564056 0.059464991 170 158 138 0.92638803 -0.12607101 -0.35484001 0
0.046113726 0.063509397 0.099323988 102 112 47 0.78338701 -0.267546 0.56100202 0
0.008724127 0.096027002 0.086947978 127 152 121 0.542386 0.28736201 0.78945601 0
0.084734723 -0.034366596 0.094603002 92 112 59 0.95015901 0.28133899 -0.134335 0
0.084586725 -0.031176601 0.094168991 88 107 53 0.638147 0.73795801 0.21951599 0
0.084080726 -0.029958595 0.094345987 93 109 62 0.77178103 0.57935202 0.262115 0
0.083589733 -0.0285776 0.094393998 90 107 56 0.34580001 0.23373599 0.90872997 0
0.081584737 -0.021036599 0.095900983 107 124 83 0.84006202 0.15802699 0.51896298 0
0.080320731 -0.021785591 0.094568998 109 128 88 0.46869901 -0.295867 0.83233702 0
0.079958737 -0.014646593 0.09631899 102 125 80 0.52297401 0.0153238 0.852211 0
0.091173723 -0.038112599 0.094479978 97 118 62 -0.12203 0.52387601 0.84300798 0
0.085736737 -0.034639601 0.093526989 88 108 55 0.59021699 0.142222 0.794617 0
0.085512727 -0.032998595 0.093586981 86 106 51 0.14002299 0.30383399 0.942379 0
0.083887726 -0.030739594 0.092862993 97 112 67 0.55715698 -0.019169301 0.83018601 0
0.083039731 -0.022440601 0.09454 103 125 76 0.44002801 0.105833 0.89172602 0
0.082372725 -0.020855594 0.094962984 103 125 79 0.41566199 -0.244234 0.87611401 0
0.074441731 0.015332397 0.098905981 110 130 87 0.29512 -0.120572 0.94782197 0
0.06571573 0.03268541 0.099016994 180 174 148 -0.0040701302 0.93909901 0.34362301 0
0.018611323 0.092760801 0.088175982 101 124 81 0.82673001 0.519786 0.215269 0
0.015050422 0.098454699 0.087525994 135 155 128 0.286569 0.45038599 0.845595 0
0.090124726 -0.036540601 0.092786998 98 119 64 0.31278399 -0.0054599899 0.94980901 0
0.086851731 -0.035243604 0.092633992 112 129 81 0.70423698 0.243818 0.66678602 0
0.086709723 -0.033549596 0.092726976 95 114 62 0.63885999 0.18385801 0.74703002 0
0.086047724 -0.031735603 0.092913985 90 111 58 0.48124701 -0.109631 0.86970198 0
0.088791728 -0.022670601 0.096157998 108 127 81 0.25975901 0.230251 0.93782198 0
0.083466724 -0.019137595 0.094716996 109 130 89 0.45207301 -0.29212499 0.84278899 0
0.076516733 0.021346401 0.10127699 98 115 61 0.29832101 0.0594729 0.95261103 0
0.0016831276 0.0011274032 0.054131001 130 135 95 0.902116 0.43115401 0.0171273 0
0.065890729 0.032202404 0.097431988 165 158 131 0.0253032 0.958332 0.28453201 0
0.017751228 0.094286501 0.087693989 85 112 60 0.166252 -0.0036286099 0.98607701 0
-0.011983175 0.1230586 0.078199983 132 153 119 0.67739099 0.038435798 0.73461801 0
